-124.2967933299288,107.26396505390781,0.0
92.06092404391183,-99.35449697041354,0.0
31.676373664915936,-53.187320110151546,0.0
-28.092096171222263,-21.8968203490969,0.0
2.1141796440734617,31.300423843310305,0.0
1.3914229948010899,131.75411670386853,0.0
75.02912430482068,-158.9277011190402,0.0
-145.38124621388374,-15.004085004581759,0.0
72.69474033671594,-150.5177250176148,0.0
15.495450158177562,99.21598341007947,0.0
-126.6884000453351,63.64106965187238,0.0
66.30782141696281,70.23643284945938,0.0
-100.89838656021122,-90.2174752524782,0.0
-22.53010843578448,152.17520850827245,0.0
16.19185061865838,-253.1667716209269,0.0
88.15374877626589,163.9745596189103,0.0
-44.518795469313375,-53.98046719044526,0.0
104.07303669714116,242.25683985166359,0.0
65.39989048289692,-23.16064567771912,0.0
-116.41513489035775,254.38262694534038,0.0
37.588019182832674,148.7775836807148,0.0
-110.33398842004623,120.28706088224395,0.0
94.39626306466593,218.5083624338028,0.0
55.2473324009875,-231.31548914551908,0.0
-39.29142782502352,71.76549610252329,0.0
38.16013144826317,288.1785548827186,0.0
-21.60036238847996,-26.46219519003531,0.0
68.64311555932638,271.7729911753498,0.0
65.698227567148,194.45523678455785,0.0
66.96181359616277,53.53215626616668,0.0
61.90765623421197,75.59852437991384,0.0
-34.23616673792957,69.7808204870055,0.0
-260.46571972162934,-250.2838676444152,0.0
-50.42439389892465,-174.7669804166252,0.0
-114.18256877155875,52.19241683134741,0.0
84.48407131520467,8.01166568572481,0.0
-124.20455024752405,-130.64040493120223,0.0
-25.23311922678217,65.67657272738705,0.0
-149.3522637020393,18.760134382469467,0.0
100.39677445868848,82.6889401016244,0.0
-9.67155653636547,-72.11392323167718,0.0
87.05653407299934,34.64947382515641,0.0
-138.1201007625887,7.163472425991483,0.0
127.85943458738869,19.385814301036184,0.0
33.35278891668062,-264.4722119102611,0.0
12.243152106865837,135.36054686734184,0.0
-119.90724118142062,95.09326031165409,0.0
112.30426775804368,341.41280846145554,0.0
-7.491384687175064,-239.30587201260394,0.0
-257.8075462465367,-246.21652461924091,0.0
216.145904899959,201.6307959959975,0.0
-32.83830846943912,-55.0036246944441,0.0
93.62593611016783,-176.04658280219493,0.0
-50.70440994976904,-232.7765007018461,0.0
114.9263433078603,-362.1640205385918,0.0
14.705549302772415,-277.01181491328674,0.0
44.16868112202798,-10.081825907195133,0.0
-122.29134379829665,145.61935729318404,0.0
209.68389309150527,-237.1610955564808,0.0
48.13489585378357,195.58506252697333,0.0
44.092771958427775,-88.50901157549144,0.0
-4.116496666386546,63.50607319563791,0.0
-127.80230034771355,-184.76243189678584,0.0
61.78595594953394,233.09023973084695,0.0
75.35742187095559,136.39555372060562,0.0
96.76560294743219,15.853088372163258,0.0
19.552361546600988,210.6951145853977,0.0
48.46946703539276,-260.5796705298845,0.0
-136.85217819357462,-43.77250729709286,0.0
80.59022618260508,126.0049964022477,0.0
-129.30703623527828,-259.7612767677704,0.0
-125.43116339335323,-212.4689424432866,0.0
-4.77358929272166,-73.76984731296436,0.0
-8.830736954811677,28.081320885899434,0.0
-70.66834611352623,-29.206954849556848,0.0
97.77395366812908,127.60063839450085,0.0
-183.2619786924298,164.7567298063273,0.0
-19.58797730483502,-163.30798062793923,0.0
-157.1650824346493,-73.71516289735182,0.0
-111.89896368909062,97.96451519184606,0.0
-183.2203033238416,142.82722042355147,0.0
-184.92361265299292,112.05336688115241,0.0
15.31038047610389,-195.16244191972157,0.0
148.9535875900708,-42.461461779131845,0.0
-159.99201054996286,206.58639974917315,0.0
-72.70843716656145,-77.06561713835244,0.0
-152.36987693059132,85.09162360895151,0.0
-24.974119950905127,-109.48879221199743,0.0
-53.423070068328016,68.03925000824437,0.0
63.28574076839679,291.86204666724296,0.0
242.27171083500275,-11.204122895919642,0.0
-145.73741264536625,149.83164422507465,0.0
18.8498548886129,209.01116875541226,0.0
-14.572034004516674,-133.1971602135103,0.0
127.78197959712925,-40.60190271194258,0.0
-96.5281168348007,-11.569734390760733,0.0
-81.81724056892824,-29.680629877092283,0.0
111.651032585277,101.50215828851668,0.0
141.46519116871823,-46.0489150768877,0.0
-24.778762968769975,-215.30859796702572,0.0
135.0058803322326,-43.164571889843494,0.0
-70.702971012569,-105.70018399554617,0.0
123.83251354401565,211.76451338996688,0.0
-34.987664598376774,-44.234331705274606,0.0
-16.512892991262127,-316.9470544030161,0.0
-44.85778430428795,63.72576350922462,0.0
-51.09069580156529,171.05324454866303,0.0
125.5013698778065,-299.6524671203069,0.0
134.09651316021382,-213.61087339156813,0.0
-150.992663358543,-2.824826879267788,0.0
0.4452497786758043,111.3559175545814,0.0
-113.53301037114545,-160.6917156334987,0.0
85.44658601854891,77.57963821278906,0.0
-11.828503680621258,287.7867488724178,0.0
-76.14123349990392,-115.33927802428566,0.0
104.22473263298176,155.72322397745282,0.0
-6.830298856874265,85.7617129410685,0.0
33.12490177009749,-158.5707620622156,0.0
-6.612482690808785,-27.43661577165835,0.0
96.05151889017034,62.59047416065571,0.0
155.20777954006098,-205.11589888482573,0.0
5.8598256786080976,107.58875473035324,0.0
32.62673993810466,20.668189616534466,0.0
75.7699281669238,155.47556785690077,0.0
24.716789078432093,53.994463910108486,0.0
-39.04611339115182,-80.94259777112636,0.0
-132.78722499436907,-13.378867465858102,0.0
92.3894491975989,-94.13517769921484,0.0
61.82505418768677,-276.0839106620066,0.0
-16.379480943965152,-55.08767608603853,0.0
67.98042609114499,-22.834137046593764,0.0
37.2496482388913,-166.53379181678625,0.0
73.1019934519554,-169.00737571071025,0.0
-91.508492840434,56.37882652067155,0.0
18.854834057154243,-177.98183253256695,0.0
127.70929503935795,175.57839603645556,0.0
106.50406546896689,221.02478233920777,0.0
-162.9639042255842,204.46856729275538,0.0
70.11481839316531,54.45926455251909,0.0
154.03373767389908,-199.11255707208124,0.0
-90.57333528661617,-110.23037685400992,0.0
32.36689215184075,22.18179199819502,0.0
-196.18177746014433,-181.3060384455048,0.0
-241.93786972760077,-187.5969367248632,0.0
45.59067734274887,151.64918195693897,0.0
145.54115566888208,126.59657712737301,0.0
76.71619720643295,28.391984981175767,0.0
61.829497537111436,54.03212845728735,0.0
-106.73336954036617,173.0741021985391,0.0
-45.90550026005253,162.23620515876686,0.0
23.19419669175292,212.15298216182111,0.0
-107.76610963219238,-74.78004026468673,0.0
-69.20006142880163,39.55484974877013,0.0
79.96111822529484,34.53366907152706,0.0
-72.34374479849431,-4.799457987968387,0.0
-84.36668660434837,-25.194377134785526,0.0
-75.6688883497073,-206.08750520244448,0.0
-106.44102463769445,117.07367637004238,0.0
145.04578002246865,20.729339350314905,0.0
-74.81814551353048,-121.84785940129524,0.0
34.66587302061186,158.34102929530593,0.0
65.8530956028194,32.34319383357203,0.0
-32.72385279254673,39.43673904244799,0.0
13.02359073605102,365.38272452512143,0.0
-121.02473814073618,163.43284008960046,0.0
92.64128202545855,36.90984459627218,0.0
-60.37860509465348,-123.77511775990877,0.0
-60.95204499258323,288.9596224014989,0.0
15.587586205176123,46.595432572064276,0.0
6.135783147801701,-102.43029021659143,0.0
6.390381426037085,-395.97488860955207,0.0
16.605360578549643,-101.52399760723362,0.0
-88.91113645135007,125.0717488476298,0.0
1.333984336166634,-31.05779971119681,0.0
-42.80624000866209,2.7590727873192034,0.0
-44.63064345481199,-173.74147248914912,0.0
203.15715233875454,-85.53085302288153,0.0
107.72356921916382,16.171741776514246,0.0
173.9605509835193,-259.5723102315805,0.0
-5.903906205834847,40.36922692905604,0.0
-54.20201056027983,-220.037857050758,0.0
77.42576322371562,-81.45254547885409,0.0
152.67255402781177,204.35522647551767,0.0
-176.3099018830027,-186.47884490674227,0.0
116.349427313138,167.51306448721246,0.0
-10.3409596631137,69.74449553863958,0.0
9.901691154741853,-90.96401844284725,0.0
145.86980875471733,50.30331523900473,0.0
-70.40976143647364,279.1760306538354,0.0
-79.0578142442794,170.89321855512262,0.0
20.959362793380652,-93.58900636081214,0.0
-4.98166033544831,147.39177753524365,0.0
43.17153076808095,-83.0539958542179,0.0
-63.59167089815202,404.45990400522163,0.0
21.843885045255476,-33.275403733811125,0.0
9.170401307667884,-139.6104418094738,0.0
-239.92372478302696,-71.793513938398,0.0
147.10859732341447,-199.67191435569552,0.0
191.39120678483363,125.6061885856715,0.0
81.08641900881909,-168.85399322779642,0.0
149.77325234677406,-187.52993842583874,0.0
147.44640514164763,-410.05937258495095,0.0
157.45584545167924,-284.72270546783244,0.0
-61.08574942761482,95.57971818257187,0.0
109.34610054394031,102.72291318390117,0.0
-21.420894284405385,-104.7400737891089,0.0
44.111898872180255,-45.96162022136836,0.0
19.96799365746344,204.17550619291208,0.0
77.42584704117922,209.8274274022306,0.0
323.40147708263936,5.9367002165665825,0.0
175.95044299949808,187.46970475585474,0.0
69.4361611928206,-21.931937620501294,0.0
-72.74127916500336,125.00394286277088,0.0
1.9763115093005637,3.2107468947939584,0.0
133.41871350647122,138.28447007595275,0.0
98.9545881274734,-14.359824187632727,0.0
-71.2611870417529,-7.090045830678955,0.0
-58.49213323303516,-5.749012381682788,0.0
-24.283363021713978,228.07253361527214,0.0
-78.66851008574734,-143.8253791435151,0.0
-15.578407322372392,-223.8861614613416,0.0
23.137426649755575,123.47673352346823,0.0
38.28506522480312,-74.22183098606158,0.0
137.54363230568336,49.79309257065664,0.0
-126.61352659836471,-163.79609667267158,0.0
24.364228252190035,-154.1962879612783,0.0
-15.5899440706085,-78.35650585967866,0.0
-139.4208826320495,138.702752372423,0.0
-2.8198281684318953,-44.98334055736743,0.0
-192.3694099701909,41.212171034418574,0.0
32.579876463847675,-34.742405172510054,0.0
218.97982238766448,-148.74025444347114,0.0
103.64227158403764,-87.1155459340178,0.0
-93.4760516255036,-241.31152615327298,0.0
34.30289495931235,-190.3945477803533,0.0
-130.54705199436384,-160.08981263408504,0.0
17.79039478660302,190.45447439610982,0.0
-148.66729815407055,182.9031961401966,0.0
61.60665136959699,-109.35785971733036,0.0
55.38766018007517,-205.3513359037575,0.0
115.61055609498965,21.752888722021467,0.0
-39.230930318106076,19.22617931864325,0.0
72.60867629699341,-142.5741781322581,0.0
34.70813313423551,317.8749225993501,0.0
99.90973541395431,209.864107317163,0.0
49.02822385620414,81.56682078726504,0.0
-95.11406325070028,-284.5562032924273,0.0
11.116016340271964,6.026547569612107,0.0
-41.73129732940344,-42.057653770382174,0.0
182.32492153786643,209.33312198469653,0.0
74.34898691338519,-14.0802776455595,0.0
-37.35049871096515,-122.58972591008882,0.0
-65.25999576243659,-205.78631426690222,0.0
45.701851970801435,-77.31009508368032,0.0
54.44288068178008,118.06659526168303,0.0
-4.276150547675062,81.10923334829918,0.0
-197.86385808945423,1.8048946619740724,0.0
74.95338328882093,-27.48388671589291,0.0
110.4306002066096,-121.52028999302891,0.0
49.72202073466699,132.71978844256546,0.0
-129.58686929145256,45.984663576670506,0.0
199.42285074096452,-40.467083401011145,0.0
2.1190255668181712,-91.56505332447851,0.0
-52.902950498110755,63.49137311479962,0.0
14.990974414569703,-207.28715065809513,0.0
-112.96497387285851,547.781264498263,0.0
-54.9383545101725,69.85316940115675,0.0
-122.4370324656254,19.170899695267558,0.0
-97.59017088845536,-159.78155030514992,0.0
-277.25366208972815,-46.02944740826302,0.0
-53.30912657838195,10.465568434420797,0.0
-49.72983994601925,-83.73885720144028,0.0
-126.10755271260143,-82.35988341061268,0.0
91.8013562011943,174.32973321212853,0.0
-181.69516427008477,176.90691116053713,0.0
74.2690982254462,190.22071187223958,0.0
-14.80665004753458,79.49886291711114,0.0
-198.01167583945434,37.02813594292099,0.0
-109.91438830576288,22.909081739172205,0.0
153.91925093253306,-74.03608438480006,0.0
-170.72131272656566,50.12255302499872,0.0
164.0954008264631,-430.62172116657536,0.0
48.179052471108406,224.1797057042374,0.0
68.82545631600779,-158.0170772305313,0.0
-187.22452792301738,23.811606335959684,0.0
-95.56016120920596,169.119454349086,0.0
163.21740394446795,199.3881693698462,0.0
-113.19976425405518,71.50651326283935,0.0
73.52919870302605,41.6893274077521,0.0
-31.38653790854862,-93.21031670542958,0.0
28.799121971530983,-16.420495102752454,0.0
98.37096152030479,169.53047558506393,0.0
139.6430770714957,-119.58152268448343,0.0
68.11548416190519,-37.45407348378356,0.0
-168.28233403541347,49.64868984316851,0.0
85.34895513692936,-46.76288073267792,0.0
82.01050959166021,-47.030066901723075,0.0
18.26588388183431,-364.06650996083243,0.0
177.74931662544685,-153.61149975629556,0.0
132.19599547999889,106.33478737850106,0.0
24.231850668250907,330.33458355529604,0.0
-24.248985130130844,-6.002386698178408,0.0
-36.00166658660881,31.627101581563682,0.0
51.898287925753884,-256.46318255841464,0.0
-138.38543866237333,-40.929173986617116,0.0
155.97628609809283,130.24761627014482,0.0
128.45884796589962,122.70492627562247,0.0
-23.66762906441572,-86.43398100969675,0.0
77.71950335851258,-102.40254972668646,0.0
63.5279090381881,130.87123345846845,0.0
48.28507849962174,-233.84642629902618,0.0
-91.37669471506332,-84.02966350822861,0.0
120.15055132843425,-185.639586197293,0.0
34.352621004048785,241.82986699357463,0.0
-48.90917145762067,-125.23101633684922,0.0
103.24250969468787,190.78090124933664,0.0
-206.18532517836718,142.31198701690528,0.0
-9.336417926780918,35.647313814297895,0.0
-98.37117798072128,20.693938400734446,0.0
12.778515047711005,-269.3319898218654,0.0
128.92291531160512,138.02192132684797,0.0
-52.94329000835619,227.85753079898583,0.0
1.2209239117547181,-216.38343235864642,0.0
-111.52230404471464,5.881430958288706,0.0
-158.76947474559165,-204.8627449975127,0.0
138.6530035717493,36.7219471799436,0.0
-255.6046604608602,87.83693879588726,0.0
83.65313121896418,-89.22481976717779,0.0
-24.49701729625648,-92.00583502321025,0.0
48.35005897369983,-296.594933862351,0.0
-81.84846531656864,15.283295374849157,0.0
9.58322848757705,-47.663297434495156,0.0
49.54159597026829,27.59322843171754,0.0
75.98062147365572,-115.05211531980233,0.0
46.43792717798547,265.2214528638194,0.0
204.11908052981863,-54.04168187369179,0.0
-80.07453297988047,152.16155764385027,0.0
-308.7029414387527,5.1774935700020075,0.0
-82.40664404807616,-75.79441476493169,0.0
-129.37881084753556,-232.77047415703217,0.0
114.4893816053238,-68.75803902710267,0.0
148.04999212783144,-117.8228444080352,0.0
114.62261548002499,117.20223649825355,0.0
-146.52783680860475,49.98023729072119,0.0
-5.395628997157529,18.423529224842852,0.0
220.59043351405236,104.12049330306115,0.0
22.025507360790687,276.30907166968683,0.0
18.475873483739978,-62.80547604576237,0.0
114.6756060002256,-139.85260887436792,0.0
202.69540461650624,-37.743160100977,0.0
-120.89057068535212,227.67885558743873,0.0
-173.23514528856998,-11.883181458574496,0.0
-95.84938604008451,11.202568865804928,0.0
-117.27138658694504,112.15436769423187,0.0
-56.84390618263686,-45.26955130647703,0.0
91.23597908733848,135.41205015379015,0.0
-103.54314573650889,44.546926374844276,0.0
-54.55570759725086,-55.33996894183238,0.0
62.239247222163854,-183.1014647311766,0.0
-29.4335452063453,184.18474419159685,0.0
70.17636021322515,59.92677119089534,0.0
-113.69913265450468,132.9713116075753,0.0
-65.07848732040466,-101.46378666358135,0.0
-53.616337187383735,-131.76844324476065,0.0
57.95951390291595,-89.0298338324167,0.0
176.49789673920017,276.4963676048024,0.0
-106.44347653567729,17.410852504214017,0.0
-47.55229638151459,-36.79986275139572,0.0
-61.94164965228397,122.46162137824139,0.0
-107.47001532562494,-308.8347001150072,0.0
-24.22092517974627,142.37285583441567,0.0
116.53903175448758,-2.911836882626086,0.0
-148.48866302511598,154.83294016317484,0.0
-29.20286595721292,266.0181420616762,0.0
-87.36146483470898,-24.641216283136735,0.0
64.91253898772578,3.8720126955665544,0.0
-4.921547697154114,103.33762198648685,0.0
36.85174916303442,8.763466336918329,0.0
141.35608687697422,300.02106518565336,0.0
87.90129418982848,105.05389128714043,0.0
75.10926842554328,37.24997960453577,0.0
-68.87227768471344,245.5456464546173,0.0
70.1381412534082,26.835257052310293,0.0
102.436191984899,57.15635658339369,0.0
43.109311766913116,-74.15729126133778,0.0
13.848663497945642,103.45346835764192,0.0
-56.319160197920226,7.883350147576806,0.0
-118.42178698982772,-39.33951858180901,0.0
157.29403463928085,-168.12130175895322,0.0
-51.95167429572197,20.924583404924483,0.0
141.38797379684172,169.68351337805206,0.0
-92.88515527298506,174.26343056921243,0.0
-30.65093024151604,-73.86007689719546,0.0
89.68668449139989,-246.13043296529483,0.0
-48.45534266472097,-161.4673128017934,0.0
127.43638619468216,38.966713051719466,0.0
-30.36787121372934,-138.43645465277035,0.0
221.39447073138342,207.17032128344604,0.0
-61.29339066066935,80.24670493800444,0.0
-33.524786840065914,47.347984770236984,0.0
47.90348820762279,113.49239538573231,0.0
18.97183359369334,169.0271823220152,0.0
-195.91794337860338,-92.65403085419689,0.0
-87.68088197254069,-86.04774739185875,0.0
-42.465527300225546,-72.32133683132794,0.0
2.0612282802099573,-29.798819088054366,0.0
-61.252897967596034,37.087898358265,0.0
4.683200819525337,161.3321243368027,0.0
37.43106506347117,-132.69368679625205,0.0
-23.356245208221885,133.70857240558678,0.0
3.1299422972648983,-86.45415602951026,0.0
137.82067028859467,52.591036033229486,0.0
117.1940129740015,79.02084494704549,0.0
-17.41336845482242,-181.95608416340087,0.0
-108.61417064721164,235.33193759312928,0.0
85.17708622744328,178.15484397103515,0.0
41.478839512992664,-207.85781811936553,0.0
21.49699026184496,-150.0963995926213,0.0
28.525335994671998,59.00504456350357,0.0
-97.07692645103157,167.70049265096299,0.0
74.58808764572407,276.5009749016902,0.0
73.58393806810544,-57.209503246591645,0.0
-49.35635686650513,166.12956816734155,0.0
-92.37339375630931,23.531712137526778,0.0
18.149052089813768,-67.73238128465071,0.0
81.66766213872243,-17.542391582468987,0.0
62.541544962870596,213.71476641984276,0.0
172.67275247462044,6.714077652566474,0.0
66.24717862335194,-340.58128585403307,0.0
-180.85557627426664,-159.27965713135933,0.0
-72.48129464136635,25.30072053609293,0.0
-116.4966121317778,222.5884373703998,0.0
-1.2110142360104121,-218.08329508377736,0.0
76.42430216893399,125.57918350725606,0.0
-159.8902726125222,77.46497915299726,0.0
-0.6901513800791221,65.1337006518023,0.0
-24.98373083226219,30.918857477208018,0.0
71.08896082653096,299.24442895696495,0.0
24.063143478688374,349.66472373535737,0.0
-5.62658615259972,-240.05974719442105,0.0
-129.58252233204615,185.30835769904945,0.0
136.29131452412946,43.159638464016965,0.0
17.54383570226214,-293.66263817180027,0.0
-57.648390627624735,157.7925040483925,0.0
122.78182523107873,-222.90470971088135,0.0
125.97937274601509,407.67504581805906,0.0
-110.6557033078362,103.99658407697336,0.0
-41.043645330791975,11.168335453270423,0.0
48.66720539497411,-94.21336827119936,0.0
-192.93349545707773,-47.77258377217582,0.0
65.91426382582054,6.266146445574768,0.0
83.18022266193854,127.15846346108881,0.0
-0.7035639734124323,177.93885933343762,0.0
-145.72991205687657,-77.81040641104207,0.0
154.12197607437108,-237.13219994473832,0.0
-149.59863668589853,-113.28846597741652,0.0
-18.22975957065945,-213.72649433336778,0.0
44.76888163410671,388.5794273480583,0.0
-19.321906896956666,-90.5646174281956,0.0
28.040008308396214,262.4850287490613,0.0
34.892334527038386,341.706086796796,0.0
-128.80114715703087,-28.598230363171126,0.0
15.955488658651065,84.69237887827833,0.0
-51.578890744216245,111.59883619401255,0.0
-5.724548539483719,77.88181082688021,0.0
-0.18547737009063078,-22.404410893465535,0.0
21.198980714652453,79.98365717386139,0.0
-65.7061676183609,145.54321592199156,0.0
-30.486426223567687,-165.3885708772494,0.0
111.30271243501224,31.679864788249844,0.0
5.3786413879826505,-62.235228358969444,0.0
64.73966873208616,-137.0368581455964,0.0
5.97642166015665,-91.8004452829407,0.0
220.17424771011304,-226.02385959420408,0.0
-125.96348883866193,-40.41770851525879,0.0
-252.62885177304182,-446.34649886111265,0.0
29.47973918912278,18.516723322107698,0.0
-43.442723637376005,114.66678245853859,0.0
25.690703929722886,-86.08990797094582,0.0
-12.78279270343606,106.64925250061387,0.0
42.613779294553055,54.48743109591395,0.0
102.47947188614752,37.59037123628502,0.0
89.8557493564371,-46.82189453531169,0.0
27.051685002826698,128.39591985342284,0.0
-61.41898580691099,101.332918204104,0.0
243.79662370284385,82.56327359456944,0.0
46.37881468096081,-37.59136840652452,0.0
-24.181730969243112,-192.6467123180771,0.0
201.19537340794685,-171.7120180637662,0.0
23.614157562660505,-47.34985444158545,0.0
-21.563494677017566,-133.37216065424542,0.0
-116.66279825501806,-201.50014343383603,0.0
81.80988144500454,78.63091846710881,0.0
-71.21088040532558,209.45158229564765,0.0
-40.16097550825173,76.53117692577162,0.0
-14.025627563363038,-155.29369686040246,0.0
-149.70888148233252,-230.01115210457152,0.0
180.15494456033338,-78.19020192698626,0.0
17.03255737438387,45.0032859752592,0.0
-167.67466848208815,-65.9167455110825,0.0
35.747649148851345,-196.36747629375014,0.0
99.83417389146872,69.6618577806019,0.0
-128.12253723755563,-3.967969498929962,0.0
22.131580062330215,-19.124198074531296,0.0
62.414370992646894,-12.844428189786878,0.0
-90.87101928121419,-191.5932170518496,0.0
-144.8259847324511,-5.387803385348047,0.0
-129.52538080965482,65.53927101822578,0.0
-13.378512392659728,73.47435474116827,0.0
42.87532783968736,-81.88618179518292,0.0
-67.57885941168206,104.80855331669275,0.0
78.84780999232855,-219.46237986125453,0.0
68.21820971396969,2.294413056425622,0.0
-132.13516901554445,22.81485224345883,0.0
-75.9339093331423,-111.96063727974351,0.0
28.111660440474484,44.938845043857405,0.0
27.25184499744798,127.70903108950725,0.0
-117.62902587321608,-120.66959038612083,0.0
93.18106815219758,-93.30784369029317,0.0
-146.45258541034025,106.58615421858444,0.0
-24.00011933812019,-40.432264064699844,0.0
-43.64601689948946,92.88660762497722,0.0
158.56985648677616,78.83559433155617,0.0
2.7901498523151393,-35.554658539017915,0.0
53.43391115681967,-180.87949052469722,0.0
13.1206477185763,-92.58152456368039,0.0
48.31844664502862,-162.95811486218605,0.0
-47.69585969274583,11.149271659106425,0.0
-135.47388530040982,-71.57495066137028,0.0
152.91000710885197,-30.415474034195984,0.0
-135.64002971694188,37.376371888954985,0.0
-136.08045720207522,63.96908632541978,0.0
26.41769107216606,-76.61760559906818,0.0
-23.206091968125342,150.8985394375849,0.0
-5.701188541995936,236.75746806455012,0.0
-121.5788062906131,-12.092788209240744,0.0
-6.599448994293539,-154.7978466814935,0.0
21.889407727334603,-49.109916813609466,0.0
-48.343866921670816,45.30602783293794,0.0
-73.11634879171764,-49.17593334518467,0.0
-50.30899016926513,13.987243577137905,0.0
0.08589345242170507,6.576527920425496,0.0
60.51528826598754,41.42390964482022,0.0
52.30749123050852,-174.84074465702892,0.0
90.91848037371155,-157.6683471108608,0.0
96.93586090120377,-91.7483773605497,0.0
-156.32910229199678,-36.293012023683886,0.0
64.86609199875244,-11.344007290438503,0.0
63.138945207729336,-150.23831830723654,0.0
57.113006881657455,-2.2325420863080683,0.0
-74.61500046051964,-10.384172856945321,0.0
2.2918749644618104,-10.84956456475856,0.0
-165.98547600059686,35.27247460641513,0.0
-35.69614984442821,-78.34377795982546,0.0
-50.89172916506779,46.24489972483668,0.0
157.6593587662951,121.8155239889388,0.0
-88.77893052291232,292.7053502696262,0.0
-14.838530792520386,-44.1140997713454,0.0
189.906785377109,30.155419858563175,0.0
11.374421917899943,128.24265171451236,0.0
-48.47831712701579,-90.94183235892528,0.0
-5.635710766399887,461.4782300290829,0.0
-75.90640641726425,-269.1015454488145,0.0
-17.49804339185661,137.72809376084902,0.0
-19.612888829378104,214.3579179789731,0.0
40.048336689468655,-238.16895609494856,0.0
-125.80942926834044,196.58230731617863,0.0
-65.93729802814529,83.19713986760873,0.0
-62.66144561537843,-55.73581330692591,0.0
-70.13243720402836,34.449483882848455,0.0
140.4890449719808,-43.10019494704689,0.0
104.22241289347456,-136.71012303901048,0.0
188.49065093974278,-99.22719544159526,0.0
48.76010496762502,-83.3696479955374,0.0
-93.94126654668369,101.44302105393493,0.0
156.12265004935867,207.53156858593945,0.0
131.1182964408541,55.447320226937386,0.0
110.16265925545731,-110.87948107367285,0.0
302.04721008887736,-136.3313892321564,0.0
147.65865524458292,280.7166429148884,0.0
-37.6994229040265,217.3666100621084,0.0
7.336766930703476,-99.53930632586706,0.0
-29.713627970536134,-344.17190745459527,0.0
21.199328554071766,251.58360338555585,0.0
-98.73797357792013,-1.5363632846675523,0.0
61.814501993930214,5.479040930110281,0.0
44.84365175389186,215.22877514299105,0.0
-205.15317394308354,-92.34389559464775,0.0
-35.19764447934284,-66.06068259901382,0.0
60.833473259282215,292.4542329861626,0.0
10.508257982101693,108.18628356645678,0.0
-16.419620029582145,-58.160646836073255,0.0
-144.7888839908374,18.60097453298097,0.0
-104.8597255320617,-39.249872913583694,0.0
-190.0157199673284,-341.94662650055506,0.0
-108.05687642041582,32.8648066494282,0.0
-32.132012525869214,-15.995110786077792,0.0
-10.737878621467889,-48.683649479012274,0.0
-49.34809845123465,40.50389834997197,0.0
52.508611311568934,44.99618656641026,0.0
645.4908224256892,500.0,468.3258221753388
436.064967732126,500.0,347.1377155012102
642.0515747046073,500.0,596.1130165136333
431.76699338034786,500.0,498.75469514676735
509.43084848646845,500.0,314.35851278552735
528.2625549039834,500.0,377.27288163675206
603.4813467890494,500.0,688.1141658949255
499.4847184374585,500.0,686.813373301155
498.2291591361664,500.0,567.5565514333689
463.2641344045328,500.0,570.3695712351921
662.3202235216384,500.0,711.2074667804263
557.2338059612069,500.0,535.7590939679932
534.110497087897,500.0,222.67682486816102
564.1652430743748,500.0,475.17944810335905
513.9819991194888,500.0,800.9560090044871
506.6166438265976,500.0,536.2951102241822
424.7729073610857,500.0,921.179127015547
278.0121063092836,500.0,613.5366088204751
443.3677444801101,500.0,244.90622580037004
501.17677252625276,500.0,360.3882473488385
297.8872281460086,500.0,787.3524195374539
420.688108672006,500.0,593.5773310457298
533.3697344396065,500.0,591.94282836032
381.33048760930967,500.0,364.20813951644857
579.7549807807986,500.0,614.0777013251221
518.6563893715444,500.0,397.94353591110223
516.0713386127677,500.0,524.3342402383282
552.2074663270402,500.0,463.3447643247043
530.5663269144424,500.0,368.65809415595254
527.5228828241393,500.0,275.99385202535655
674.4739817240497,500.0,330.4802314925123
430.72288935661516,500.0,588.7426626033833
458.3288841755167,500.0,415.11171367361965
510.75620164973367,500.0,627.4916798266781
569.5815547852579,500.0,577.2170855567624
428.10187981427697,500.0,417.0212888004892
576.8671819969729,500.0,565.3967377531391
626.4687803487392,500.0,611.9507511359609
476.56601164229284,500.0,449.4986633586309
444.16249315782795,500.0,324.7675808124314
438.7790828730045,500.0,278.54101661039147
722.9051426180738,500.0,703.0992494622996
544.0753687513954,500.0,369.4572844243854
267.092174227538,500.0,660.8530506302797
553.2379060017589,500.0,629.4408813746934
312.95774402397143,500.0,601.8243774208628
339.2006132960642,500.0,444.5352028422552
560.1099403487356,500.0,400.55380400470455
455.3480194743333,500.0,698.9198046502693
319.6692345151652,500.0,574.2340987407239
612.7588970783013,500.0,359.0090339014278
590.072930392059,500.0,157.78703183104716
398.13917455825754,500.0,452.76227027340883
641.9133876591948,500.0,575.0352058100841
418.12831317657873,500.0,489.2747233335451
507.5985808017312,500.0,350.9718683661274
530.9878864200693,500.0,488.7110913293519
532.667887488567,500.0,554.1864754080839
412.1742121499118,500.0,638.553918308974
504.9047427964449,500.0,708.3710715304758
581.9598270053019,500.0,565.4411109450917
384.20928487964335,500.0,264.05133491963124
559.1370909790921,500.0,406.4074398265394
453.672431991342,500.0,532.7823395665712
428.43966733599854,500.0,395.8597396268224
607.3847001774442,500.0,352.29189767423884
550.2646814240136,500.0,298.49314253983266
555.586239895076,500.0,545.7826689175637
331.5520903630278,500.0,494.6396632621173
567.8812967780422,500.0,479.3920429362242
622.5817493433257,500.0,480.6728313869395
469.4790228657221,500.0,375.402900288977
526.2275419670797,500.0,303.8125937624253
570.8369950130714,500.0,830.9667171679678
452.46151125188555,500.0,671.898657344242
480.53643152028883,500.0,746.3799286503
672.1504490676323,500.0,607.7465113750437
576.4031755597301,500.0,504.64433034627433
469.86259915002773,500.0,515.6870826320438
566.063785022281,500.0,512.1416274392911
578.3890389457467,500.0,417.6225898760408
601.4803536125339,500.0,375.4969303980438
515.7758407148586,500.0,488.0015086100672
582.0504658183585,500.0,611.8996022974922
416.03965618175005,500.0,411.4296153963693
401.68578013074443,500.0,199.43269568471976
517.213352907349,500.0,744.9832900521928
389.0214270518736,500.0,562.841688815351
550.6377715135869,500.0,604.3666354213562
399.3147463225389,500.0,601.7873382202636
278.36840437990793,500.0,442.49307999679706
535.6858395190972,500.0,463.75349000157667
538.2822105929524,500.0,646.7874359984778
552.389838082538,500.0,439.9216080787363
645.6727497417772,500.0,591.9786659143161
623.7997607599519,500.0,513.9671540630908
602.4673125492516,500.0,803.3069993755213
427.4394920149372,500.0,706.8169996579727
487.3085444609218,500.0,755.0281264120487
693.6401921167071,500.0,568.0510270754646
514.6333337773326,500.0,544.9953834073236
346.7458888797431,500.0,621.1212779746078
379.56253663535097,500.0,374.5651131850604
470.51842849779774,500.0,398.56086684707964
451.01968879009655,500.0,628.6317180787382
669.2613943726158,500.0,578.7845534518755
651.4346775741622,500.0,443.46803786434157
512.5680632981812,500.0,391.6727745168914
470.4267434145314,500.0,695.9188281111535
466.8292307285414,500.0,633.6249851125107
708.1051611066168,500.0,703.3819873204528
459.50336305440635,500.0,412.4998001011963
390.90193748270866,500.0,399.89347811430787
451.6627401935044,500.0,208.81936386186374
476.9025992084989,500.0,434.1029500244088
334.87521500540413,500.0,602.9107578518698
500.25214234347277,500.0,558.1076334399077
425.36694507103056,500.0,532.7384423785965
633.6139662071688,500.0,575.2859458758946
578.7228702858686,500.0,637.8910437632217
573.3260059775197,500.0,471.10893143437903
469.67334979417916,500.0,390.77770967636906
516.8262646713083,500.0,706.1715191415874
453.97143406200865,500.0,639.9347331295356
493.78130865057847,500.0,777.2824750759212
563.7243792097854,500.0,297.21180523594285
336.9363016730992,500.0,393.2413210968823
541.1896191350364,500.0,583.1766299833745
558.1750360444084,500.0,720.7816184194738
780.3206708716973,500.0,414.35190600133103
618.7696495241815,500.0,557.1522138519751
619.662530352335,500.0,513.4259920455763
509.09838114999155,500.0,450.83297138015837
415.1496610439037,500.0,376.9568250633223
525.9650537164307,500.0,513.1939599141263
512.0807037246046,500.0,812.6051264692887
353.9647072572252,500.0,532.7251098468195
580.7680697974582,500.0,272.4895918736627
457.21862773498833,500.0,519.5835816627437
563.779104737948,500.0,355.8769436845157
523.1243651966957,500.0,561.5773355676096
648.0980502643503,500.0,926.7598616647516
445.15023984739116,500.0,741.5643889132381
665.9003328370552,500.0,440.71674963118056
616.8039053132593,500.0,806.9158682972202
371.7432548110497,500.0,611.2491483147804
484.6620264026478,500.0,492.5525278179299
496.8838192183141,500.0,409.0571829997133
612.8555520983209,500.0,370.3051564216778
437.0587720870403,500.0,296.0471353270342
423.85059284960005,500.0,748.0733887500808
565.5940112414875,500.0,587.9032137880602
664.8016873873476,500.0,483.6222242961128
630.6346987255198,500.0,614.9190187653595
405.64196423407225,500.0,719.1248358456401
238.48824707697975,500.0,552.9901766226135
513.6150367317091,500.0,518.6749400187496
585.6076968734459,500.0,599.2689695723719
616.7698301991758,500.0,268.4639382825359
364.8312194475579,500.0,506.8099887976244
499.45710816670646,500.0,602.3994051294371
405.2900974882658,500.0,331.82741308236297
679.5163176379292,500.0,384.95060897434274
431.4325027492441,500.0,739.7365088208303
456.8425929901353,500.0,455.18569800882295
416.35932385609783,500.0,560.3777398276943
477.69944133518146,500.0,312.1937935519893
722.6487931275037,500.0,416.783425489387
434.6141664638431,500.0,242.36967357218197
506.8958181443187,500.0,416.6496574577455
364.447612409187,500.0,515.1707471489948
524.0695501287418,500.0,452.0509288451981
519.9469750430903,500.0,473.6881090062253
550.5681088373171,500.0,387.19231280493693
497.55772806556905,500.0,564.5686745625969
436.1090130779572,500.0,586.3400990612038
429.11526263257656,500.0,689.7146092014754
582.1524540579567,500.0,822.3914685112247
486.009483982962,500.0,399.4199299848709
556.0347669269797,500.0,427.1757717782591
516.8357015680826,500.0,391.2035671093089
375.9045292676228,500.0,398.03716392346365
539.4709979895111,500.0,362.5309684031798
709.6307055413024,500.0,510.1749436213073
521.2313948419959,500.0,383.1274665683941
583.4846695663508,500.0,397.0610676677592
566.0521348624856,500.0,655.7548333196584
747.0074166889428,500.0,788.2902424390154
353.79703592403825,500.0,809.0098828646926
514.3327241805167,500.0,803.5182993278236
483.1943469749712,500.0,267.0632887349045
441.64773888630873,500.0,710.2799608299915
447.325479780782,500.0,345.23097425974265
407.1725760253353,500.0,342.10703883524775
414.72494977374026,500.0,382.12051755830817
636.8236652601008,500.0,333.2562589496161
604.7171108289537,500.0,572.0979866229392
405.6350728570825,500.0,381.07351465123077
476.7530994990907,500.0,206.9213198115125
580.0338203562028,500.0,559.294043360631
565.0465240410039,500.0,508.7817768503362
610.8690772101446,500.0,510.85667414186884
531.3489315624706,500.0,221.1886963283278
352.03775286443806,500.0,629.1643312108274
363.5410528714416,500.0,576.5856808692047
528.5915823024242,500.0,380.8251877038683
720.7337591566449,500.0,422.674332492717
435.22027375799905,500.0,572.867533910988
553.35385787539,500.0,515.207741184741
383.4373630995501,500.0,446.52563012844377
575.9792450808359,500.0,495.9610699069554
549.1258632414452,500.0,412.5537773859591
384.1929362337292,500.0,636.4916492895313
672.8517473278424,500.0,463.7549724350484
446.09596136436926,500.0,358.0317144275732
576.062436112767,500.0,687.0558628561613
362.5119149051601,500.0,973.1302445672673
731.4311568832627,500.0,695.0915902006874
503.11229322519756,500.0,593.0844652050273
575.5457944601028,500.0,407.59741664120736
561.8264179346519,500.0,661.6551513433787
517.4540152252919,500.0,550.8533059485234
481.91897514256505,500.0,577.2970503495665
370.19705917674247,500.0,615.4769432178896
528.6635724046199,500.0,569.6996706971383
458.8664024710748,500.0,676.1886161847482
571.912397848249,500.0,224.55946388173817
502.47055214598095,500.0,393.9276698422012
456.91419997264785,500.0,508.9892697977339
319.1568469536571,500.0,613.1612418076525
445.4882211861151,500.0,536.5214611736178
577.8406657189164,500.0,305.960263323664
380.9486560343822,500.0,312.2578111235289
473.82848920831094,500.0,771.7603239888136
273.04770217267253,500.0,405.16479168377475
430.40515571254844,500.0,609.9265613164794
515.0899411126279,500.0,584.3980776171668
614.2771130157332,500.0,553.3004101484019
596.9762818742893,500.0,453.2834020247251
608.9417605211088,500.0,683.3017690480183
556.8435122951776,500.0,394.3935311468415
544.2351151119021,500.0,529.8565144439731
261.546874433085,500.0,596.9339260404095
446.7814147168475,500.0,482.6178129855248
513.063188517197,500.0,466.84277899024926
518.9955173710892,500.0,432.9447484801541
660.1874176405905,500.0,666.2777562526479
585.494716197509,500.0,643.7121071540421
630.8064223861275,500.0,352.4143545605924
421.07960237451357,500.0,591.378957130698
453.2923191062873,500.0,358.79960056142374
624.1606234018873,500.0,327.9050694020268
597.8301404824683,500.0,173.14346441939006
522.4648026213118,500.0,563.1362912297113
445.9579889195267,500.0,467.52596270415006
449.20307494368365,500.0,558.4788801540601
527.5044928788964,500.0,686.8441371013182
370.5178797666313,500.0,445.073611033631
511.9835293202836,500.0,461.93931877636385
393.19256971849717,500.0,442.1492064075723
601.3139178170208,500.0,441.1551369384324
528.2660893035478,500.0,554.2151458030233
503.79875763160464,500.0,811.9585288310494
664.5768581761372,500.0,256.2789419487633
619.2827854047069,500.0,305.63641641872954
446.3803549846194,500.0,666.5655208791635
673.7501719630827,500.0,334.5756911237103
529.7714776907065,500.0,600.4005528973971
675.876714651902,500.0,841.3549089862809
547.317543529497,500.0,539.6346599084867
513.6049525938432,500.0,288.8713133076766
331.39112283352057,500.0,601.7092320401268
609.0489404569691,500.0,390.824572605687
451.06609822250726,500.0,676.6066225131924
440.03347613975455,500.0,594.4316053867992
340.52320747993105,500.0,546.0966917347763
531.5358319825751,500.0,390.43741450655415
497.79048677727457,500.0,734.9314443977647
599.1938161609705,500.0,660.7366371208062
531.5132749659425,500.0,293.34297960373124
493.2690946525456,500.0,435.6924557924611
482.29307062741384,500.0,829.2714669138503
519.8006953957805,500.0,464.46389405541197
494.7612881322463,500.0,319.5993979428783
431.2998944759005,500.0,493.4845947791355
413.13138297849173,500.0,496.66904154345116
567.9732008290946,500.0,303.3547027290475
569.0640322152922,500.0,723.313432820383
322.83917969290565,500.0,411.9378006255447
678.3173619422703,500.0,756.7507367376761
630.9141824993951,500.0,285.2710942305039
409.65670313937426,500.0,499.3905957337517
521.7968416956901,500.0,455.7814791312913
547.9779461568304,500.0,638.6559603555138
468.16388447244606,500.0,379.327067477385
430.0187308430796,500.0,488.8166621303768
636.8819859413109,500.0,550.3654557014214
439.9876570586786,500.0,701.9440930154842
522.2125727757287,500.0,382.56482012273625
590.1815955215108,500.0,639.3841035286553
479.494282905207,500.0,24.34398353656229
476.04659253666944,500.0,288.31217379321015
563.5868100703741,500.0,652.0269765231562
543.3187800667826,500.0,299.7081547519811
628.9629926035432,500.0,455.7672882131295
442.6719741401993,500.0,457.85990112310674
598.4132249243947,500.0,532.8940711593802
482.5280852219163,500.0,460.25736860178506
382.74311724926235,500.0,334.6934877906011
484.1999841917651,500.0,656.4350218223653
587.9582165843358,500.0,667.9021635429333
562.9057257094724,500.0,285.8706658285599
432.130287274958,500.0,220.89217525773665
558.1278452371369,500.0,487.61081890966676
584.9628596728589,500.0,586.5456733373496
521.9238907958894,500.0,679.1696411089031
393.3285463796026,500.0,362.61759347572075
571.8787806899561,500.0,407.8765625139035
508.4147736229664,500.0,486.979747227916
500.24808493514774,500.0,599.1320503592077
507.9206104109985,500.0,486.8351945427576
311.42330783697855,500.0,697.4310441355732
681.3569940074074,500.0,675.2154192609706
419.97197164143176,500.0,681.6008746112789
540.8019329784852,500.0,328.1964601513748
359.51178128653487,500.0,574.7373434372328
664.4391351232828,500.0,464.26091009703833
433.14817703442935,500.0,690.8419745728188
558.3659803902603,500.0,750.0711961954757
570.0388841015586,500.0,150.74594633099565
625.9568115658026,500.0,639.3898176995992
623.2273608939272,500.0,779.441351010923
539.9726870557132,500.0,175.56236844048993
457.0151599234469,500.0,619.1269604546164
555.2162738388645,500.0,658.7927504034137
484.9708470858721,500.0,348.0404148575849
691.5787441541759,500.0,263.40079702229866
397.472836538189,500.0,664.7320596141433
440.5359279685107,500.0,330.97848290599666
469.34008802561704,500.0,527.3889812642792
473.91364557396736,500.0,636.9215144688379
573.9307422277509,500.0,545.9496805078934
575.0674161461626,500.0,517.989533285354
433.110852115372,500.0,594.4324770101836
347.15942779434965,500.0,331.3010972186179
487.44048076572625,500.0,530.2523798676458
392.02263778878876,500.0,631.5902375348749
586.5722902055293,500.0,750.3888483568062
559.0265855521745,500.0,513.5372072117859
483.22096875213185,500.0,629.5377063980056
465.2960713591199,500.0,776.3503413256987
444.0976021272067,500.0,781.2474747096172
451.6849480205142,500.0,666.1109190962876
392.91104403228724,500.0,430.82335961651813
404.4482133629721,500.0,561.1404815980752
516.8962326511655,500.0,491.2048934610302
517.4285720351041,500.0,433.14314615238163
355.37503954900376,500.0,286.2237750528822
360.7304385877311,500.0,605.0187320029123
649.8689452484288,500.0,653.1184154681705
370.98970818081114,500.0,461.8021947220137
382.8814494487707,500.0,482.0094904375272
699.8921604768298,500.0,556.2565941054387
613.5711097752185,500.0,372.7252016184436
483.16116813715223,500.0,677.3566186888812
544.6147785823983,500.0,548.3800100636778
443.81658260783263,500.0,466.91187835394925
439.4308871511327,500.0,459.88955112434945
553.5083223572605,500.0,417.0057932307325
487.76455481456367,500.0,424.42330221856366
509.77624174170666,500.0,638.5196379972399
462.2722087407443,500.0,210.34038567206227
305.75537542661306,500.0,398.9252024396261
552.2507994845364,500.0,283.9316270538405
379.2715893089661,500.0,428.9179149060932
557.2354276979277,500.0,423.40322243235653
562.9038433449276,500.0,276.1119625617431
514.08714798727,500.0,459.74564596433584
575.4647467659711,500.0,524.086001612185
432.0122581258169,500.0,725.4525211959213
553.2945271382101,500.0,532.9284887648524
441.06246274000864,500.0,665.543064043591
757.5322788760842,500.0,521.8778751425251
467.25409242983795,500.0,683.8892098246165
449.9022761472325,500.0,501.76529634389567
580.6648987358585,500.0,597.431438411047
467.0048827822658,500.0,370.3308457688528
642.9106804244874,500.0,647.0744061685133
682.345604365637,500.0,707.3484214985428
410.55314684653905,500.0,477.2147668136322
657.7537570998752,500.0,437.1927916733853
458.8346552942217,500.0,565.3622970581247
538.1839625491027,500.0,597.8139456041852
380.39255694040634,500.0,459.2072816019448
351.3369002923365,500.0,335.0386036031057
416.70765457371385,500.0,496.70411284555786
400.5044695534924,500.0,615.1145370381204
602.4299363486369,500.0,501.4318445509329
498.3248163842371,500.0,767.8959034693873
550.0392708450333,500.0,429.79512827922275
559.56266510632,500.0,568.8374639424496
685.8523786782544,500.0,294.2843638749038
436.4058431967764,500.0,331.0037280486077
503.0168091485407,500.0,575.1988900784185
508.22863749212416,500.0,461.6244673373814
488.35858016558836,500.0,704.5740011787639
393.02533294684895,500.0,290.33912170134727
417.1702079636121,500.0,531.804395735869
453.06084805002143,500.0,621.1566723870711
314.8569055084675,500.0,480.47173094467945
458.3090516854568,500.0,716.127146925971
548.8573076194581,500.0,453.4218297029788
467.99732333720493,500.0,617.2888591585277
424.7535401440913,500.0,769.5777198171613
503.83285440473935,500.0,251.06468929475983
504.5550922413591,500.0,345.09543179141144
506.47245742879306,500.0,387.00162614053664
622.3248927742695,500.0,529.5328366282561
418.2445933486595,500.0,485.8193396316596
378.63452361560445,500.0,289.81692027175836
666.0842284274689,500.0,307.3728937842288
504.4013723671113,500.0,602.6712645466564
511.97649380329426,500.0,406.521209441491
484.7070649005245,500.0,679.5898109847647
458.81433253172275,500.0,372.72146617532405
478.30705275004004,500.0,490.56458340264845
341.7508526588814,500.0,536.7851036276405
428.6781367288203,500.0,388.7124603561431
600.265557002473,500.0,489.29216089052323
429.96051979136604,500.0,655.5778389180667
588.3356172410364,500.0,698.2511172844571
448.7796445346815,500.0,435.01929095822385
460.0777221203339,500.0,438.07872850713375
255.43620853320004,500.0,504.5679923602558
396.49654960244317,500.0,581.4362262808611
384.9719399176963,500.0,562.9352458581217
511.5435778647351,500.0,249.1520001371232
651.1535519512549,500.0,595.8673913594306
485.7166146031557,500.0,575.8098542556061
450.5060078697194,500.0,502.1785616285617
528.3617648783294,500.0,467.78913884880217
401.3534772406534,500.0,354.85027570921613
398.2256318336207,500.0,549.8177672063109
601.7571454298022,500.0,472.6366717249771
644.2453873361484,500.0,462.8544317860233
395.34112803162725,500.0,234.14110372859028
583.4129176133974,500.0,761.7919648425627
381.3141661202063,500.0,443.23205097546804
371.46456421796256,500.0,605.3239755834883
335.5893024886233,500.0,442.92685040998646
427.4283179228838,500.0,604.6057348130087
565.790478149213,500.0,706.1541359469597
506.9828047805347,500.0,388.09213186919004
848.6953620435102,500.0,552.7853356954882
580.7148377239093,500.0,478.5082584967201
632.3741851449964,500.0,501.41823865529346
614.8339657629899,500.0,422.95904039855526
635.2293491310232,500.0,547.6209765504063
487.3427226224212,500.0,706.1834968052663
518.2774219746733,500.0,865.0127882645794
386.9421676750627,500.0,729.5777025646684
581.4225055783643,500.0,389.86465405287674
434.2358261432642,500.0,442.38072722193425
477.75896756281065,500.0,575.9830488350102
446.518984060862,500.0,207.01646609019963
763.3921856870215,500.0,550.0429113497082
462.47739403952113,500.0,538.6023923280533
500.48218914827646,500.0,538.6544528325815
436.230862711455,500.0,462.9012094224205
383.8222528663724,500.0,417.57063510984887
618.3011379515541,500.0,86.93640402407271
433.58409755289796,500.0,548.3000138790231
478.05352805821326,500.0,537.9218766617496
581.582667095515,500.0,527.5465994043216
467.71060288917494,500.0,453.20459839755216
429.7939868781358,500.0,442.8364559172903
486.8189906553601,500.0,482.39813104439213
383.57713550842783,500.0,234.38511485174723
547.7785854571109,500.0,408.8791785219162
594.0471116163249,500.0,39.214100660216786
466.56847616945294,500.0,624.5214431744439
451.93163723571683,500.0,502.63557397615944
449.65551664655015,500.0,549.5151431046843
485.5751869752274,500.0,579.6004026032051
526.487586289519,500.0,441.6164737432226
587.1455471383703,500.0,369.5574881995829
460.482031906004,500.0,612.0125239264588
448.5163379288538,500.0,511.50980517954486
644.3487299130331,500.0,741.7140645213491
476.53840321973354,500.0,546.7080441928471
296.1230880493917,500.0,534.7322250759653
510.3141418400421,500.0,316.76862613619187
441.1205831942491,500.0,569.0248614202592
545.8683405771276,500.0,361.8888807674124
536.2997343664447,500.0,496.0112437631815
252.20565762084527,500.0,529.6866395322725
341.6612311211154,500.0,810.0469591514684
548.0068101097484,500.0,609.0076638338306
653.6365533700674,500.0,399.5162679259295
520.8107359875812,500.0,479.9595163920285
696.8320452920292,500.0,321.8637000385162
575.9422770422683,500.0,667.5639890061697
689.7679222988158,500.0,591.1130242177417
529.4212569622871,500.0,689.7820247985942
561.246725448367,500.0,393.120820349892
514.1744915731225,500.0,433.61343101943237
326.8897980373452,500.0,675.3607513003603
572.2808893112849,500.0,576.9235487111814
567.4979045415517,500.0,687.7808756769318
476.20771232992746,500.0,483.5507841895265
496.6384075303488,500.0,304.06352574739304
471.13632739576076,500.0,692.6341536543482
470.9524153931449,500.0,380.4568357497228
460.84673846168073,500.0,563.2095777728159
524.512140734675,500.0,351.1596902625231
461.38068711983,500.0,353.5974050412673
526.7653411058841,500.0,504.4177205082259
598.4438360897202,500.0,467.112822386639
474.8829367466802,500.0,357.742194400353
395.29668338930395,500.0,523.2815789922937
524.501628659844,500.0,442.78235390158
514.5743893179095,500.0,361.5128345493232
631.3653116640222,500.0,532.3941102558457
456.07467908731945,500.0,411.69400817074944
526.5026848032369,500.0,417.57753256979316
421.7967582081758,500.0,513.8015950620911
463.650756585031,500.0,354.26781317541975
386.0435045671578,500.0,650.366203450139
626.0215452080242,500.0,275.9547446414965
516.4515300031657,500.0,627.8854705613878
377.6062025325047,500.0,547.5863885602475
460.6777012287799,500.0,604.5988658607351
486.1212205535286,500.0,413.8705658457568
553.0662986635944,500.0,490.01805066047984
483.47075867871746,500.0,339.1673123927419
473.75402284310405,500.0,297.58078770774057
551.608250661303,500.0,336.6199052670423
709.5169570975379,500.0,379.86895564792724
440.7963713084518,500.0,777.1535905196373
346.606769100232,500.0,624.9354590183736
468.4935370883406,500.0,647.0326689895253
